              168953.625              435309.969    6.76
              168918.031              435316.562    6.73
              168882.219              435323.406    6.83
              168846.109                435330.5    7.02
              168809.609              435337.812    7.07
              168772.625              435345.406    7.79
              168735.125              435353.188    0.84
                  168697              435361.188    -7.68
              168658.234              435369.344    -6.4
              168618.766              435377.656    3.91
              168578.578              435386.094    7.28
              168537.641              435394.594    7.43
              168495.859              435403.125    7.44
              168453.219              435411.656    7.4
              168409.688              435420.094    7.62
              168365.359              435428.344    7.6
              168320.328              435436.312    7.77
              168274.734              435443.969    6.76
              168228.688              435451.281    7.34
              168182.297              435458.188    7.35
              168135.656              435464.656    7.23
              168088.891              435470.656    6.8
              168042.062              435476.188    7.05
               167995.25              435481.219    4.23
                167948.5              435485.719    3.57
              167901.828              435489.719    5.11
              167855.234              435493.219    6.19
              167808.734              435496.219    6.3
              175460.719              434883.906    8.78
              175416.594              434882.969    8.43
              175373.062              434881.812    4
              175330.219                434880.5    7.44
              175288.125              434879.062    8.05
              175246.828              434877.594    9.19
              175206.297              434876.094    7.27
              175166.484              434874.594    8.25
              175127.359              434873.156    7.51
              175088.859              434871.812    7.46
              175050.922              434870.531    7.39
              175013.516              434869.344    7.4
              174976.594              434868.344    7.98
              174940.094              434867.562    8.7
              174903.969              434866.969    8.48
              174868.141              434866.562    9.06
              174832.562              434866.375    9.75
              174797.141              434866.406    8.61
              174761.812              434866.656    8.59
              174726.516              434867.125    8.66
              174691.203              434867.812    8.76
              174655.812              434868.688    8.93
              174620.297              434869.875    9.09
              174584.641                434871.5    9.26
              174548.875              434873.438    9.42
                  174513              434875.531    9.86
              174477.016              434877.812    8.93
              174440.938              434880.281    4.18
               174404.75              434882.938    2.1
              174368.469              434885.781    -3.63
              174332.109              434888.812    -4.89
              174295.672              434892.031    -7.35
              174259.172              434895.406    -10.16
              174222.625              434898.969    -16.61
              174186.031              434902.688    -12.58
              174149.422              434906.594    -16.75
              174112.797              434910.625    -17.38
              174076.172              434914.812    -15.63
              174039.547              434919.156    -10.26
              174002.938              434923.656    -9.51
              173966.359              434928.312    -1.04
              173929.812              434933.125    5.11
              173893.328              434938.094    8.22
              173856.891              434943.219    9.83
              173820.531              434948.469    6.13
              173784.234              434953.875    6.36
              173747.984              434959.438    3.13
              173711.781              434965.156    -3.58
              173675.594              434971.062    -9.19
              173639.422              434977.156    -11.65
              173603.266              434983.438    -14.25
              173567.094              434989.906    -15.74
              173530.875              434996.594    -14.96
              173494.609              435003.469    -12.69
              173458.281              435010.531    -7.56
              173421.844              435017.781    0.5
              173385.281              435025.219    3.88
              173348.547              435032.844    5.96
              173311.609              435040.656    5.28
              173274.453              435048.656    4.64
              173237.031              435056.812    6.19
              173199.328              435065.156    7.15
              173161.328              435073.625    7.64
              173122.984              435082.219    7.73
              173084.281              435090.938    7.71
              173045.203               435099.75    7.66
              173005.719              435108.625    7.6
              172965.812              435117.562    7.74
              172925.469              435126.562    7.85
              172884.656              435135.594    7.73
              172843.375              435144.594    7.91
              172801.656              435153.562    7.97
              172759.484              435162.469    8.03
              172716.891              435171.281    8.24
              172673.859              435179.906    9.42
              172630.391              435188.312    9.16
              170924.859              435281.125    8.96
              170883.359              435279.906    8.09
              170841.906              435278.562    7.65
                170800.5              435277.156    7.51
              170759.172              435275.656    7.22
              170717.938              435274.062    6.96
              170676.812              435272.406    6.93
              170635.844              435270.688    6.94
              170595.062              435268.906    6.96
                170554.5              435267.062    6.87
              170514.172              435265.188    6.88
              170474.109              435263.281    6.84
              170434.344              435261.344    6.73
              170394.875              435259.438    6.98
              170355.734              435257.531    7.07
              170316.922              435255.688    7.16
              170278.453              435253.906    7.17
              170240.359               435252.25    7.09
              170202.641              435250.719    7.15
              170165.312              435249.344    7.24
              170128.359              435248.125    7
              170091.734              435247.094    7.18
              170055.422              435246.281    7.24
              170019.391              435245.656    7.07
              169983.594               435245.25    7.22
              169948.031              435245.094    7.03
              169912.641              435245.188    6.96
              169877.406              435245.562    6.93
              169842.297              435246.188    7.16
              169807.281              435247.094    7.14
              169772.312               435248.25    7.02
              169737.375              435249.688    6.79
              169702.438              435251.406    6.71
              169667.469              435253.375    6.67
              169632.422              435255.562    7.14
              169597.281              435258.031    7.16
              169562.031              435260.719    7.13
              169526.703              435263.656    7.2
              169491.297              435266.812    7.24
              169455.812              435270.219    7.28
              169420.266              435273.812    7.32
              169384.672              435277.625    7.28
              169349.031              435281.625    7.28
              169313.359              435285.812    7.31
              169277.656              435290.188    6.96
              169241.938              435294.719    6.62
              169206.281              435299.469    6.65
               169170.75              435304.531    6.65
              169135.312              435309.875    6.65
              169099.938              435315.406    6.76
              169064.625              435321.094    6.7
              169029.391                  435327    6.71
              168994.172              435333.094    6.71
              168958.891              435339.438    6.71
              168923.469              435346.031    6.75
              168887.828              435352.875    6.81
              168851.859              435359.938    6.97
              168815.484               435367.25    7.05
              168778.609              435374.812    6.75
              168741.172              435382.594    5.68
              168703.094              435390.562    -3.23
              168664.328              435398.719    -2.45
              168624.859              435407.031    7.12
              168584.625                435415.5    7.33
              168543.594              435424.031    7.28
              168501.688              435432.594    7.18
              168458.891              435441.156    7.41
              168415.188              435449.625    7.29
              168370.641              435457.906    7.23
              168325.375              435465.938    5.55
                168279.5              435473.656    6.03
              168233.172                  435481    7.08
              168186.484              435487.969    7.33
              168139.547              435494.469    7.29
              168092.469              435500.531    7.22
              168045.328              435506.094    3.49
              167998.203              435511.188    3.49
              167951.141              435515.781    3.9
              167904.172               435519.75    6.08
              167857.312              435523.062    6.19
              175416.016              434912.875    8.43
              175372.344              434911.719    6.97
              175329.391              434910.375    3.96
              175287.203              434908.938    7.72
              175245.859              434907.469    8.16
              175205.312              434905.969    9.09
                175165.5                434904.5    7.49
              175126.406              434903.062    7.56
              175087.953              434901.688    7.51
              175050.109              434900.406    7.45
              175012.812              434899.219    7.7
              174976.016              434898.219    7.59
              174939.656              434897.406    8.42
              174903.688              434896.812    8.64
              174868.031              434896.438    8.08
              174832.641               434896.25    9.56
              174797.406              434896.281    8.58
              174762.266                434896.5    8.52
              174727.156              434896.969    8.56
              174692.047              434897.656    8.66
              174656.859              434898.531    8.78
              174621.531              434899.719    8.94
              174586.062              434901.312    9.11
              174550.453               434903.25    9.19
               174514.75              434905.344    8.88
              174478.938              434907.625    10.01
              174443.016              434910.062    9.66
              174406.984              434912.719    5.25
              174370.859              434915.562    -1.27
              174334.641              434918.594    -4.66
              174298.344              434921.781    -6.85
              174261.969              434925.156    -8.36
              174225.562              434928.688    -15.73
              174189.094              434932.406    -17.79
              174152.609              434936.312    -17.7
              174116.125              434940.312    -17.21
              174079.625              434944.469    -17.31
              174043.125              434948.812    -15.37
              174006.641              434953.281    -9.03
              173970.203              434957.938    -5.18
              173933.797               434962.75    -0.25
              173897.438              434967.688    6.16
              173861.141              434972.812    8.38
              173824.906              434978.031    9.93
               173788.75              434983.406    9.49
              173752.625              434988.938    1.8
              173716.547              434994.625    -4.7
                173680.5              435000.531    -9.46
              173644.469              435006.625    -12.18
              173608.453              435012.875    -14.9
              173572.406              435019.312    -15.42
              173536.312              435025.969    -14.54
              173500.188              435032.812    -13.05
              173463.969              435039.844    -9.33
              173427.656              435047.094    -5.28
              173391.203                435054.5    -1.4
              173354.562              435062.125    3.46
              173317.719              435069.906    3.46
              173280.641              435077.906    6.84
              173243.297              435086.031    6.77
              173205.656              435094.344    7.44
              173167.688              435102.812    7.39
              173129.359              435111.406    7.76
              173090.672              435120.125    7.75
              173051.594              435128.938    7.71
              173012.094              435137.812    7.79
              172972.156              435146.781    7.87
               172931.75              435155.781    7.84
              172890.891              435164.812    7.88
              172849.531              435173.844    7.9
              172807.688              435182.844    7.99
              172765.375              435191.781    8.54
              172722.594              435200.594    8.24
              172679.375              435209.219    9.42
              170882.469               435309.75    8.09
              170840.938              435308.438    8.23
              170799.469              435307.031    7.83
              170758.078              435305.531    7.38
              170716.781              435303.938    7.09
              170675.625               435302.25    7.02
              170634.609              435300.531    6.89
              170593.797               435298.75    6.91
              170553.219              435296.906    6.97
              170512.875              435295.031    6.92
              170472.812              435293.125    6.87
              170433.047              435291.188    6.7
              170393.594              435289.281    6.95
              170354.484              435287.375    7.05
              170315.719              435285.531    7.09
              170277.312              435283.781    7.06
              170239.297              435282.125    7.21
              170201.672              435280.594    7.22
              170164.469              435279.219    7.18
              170127.641                  435278    7.13
              170091.156              435276.969    7.25
              170054.984              435276.156    7.18
              170019.109              435275.531    7
                169983.5              435275.125    7.04
              169948.109              435274.969    6.92
              169912.922              435275.062    6.91
              169877.875              435275.438    6.8
              169842.969              435276.062    6.96
              169808.156              435276.969    7.11
              169773.406              435278.125    7.06
              169738.672              435279.531    6.81
              169703.953               435281.25    6.63
              169669.188              435283.188    6.59
              169634.344              435285.375    7.18
              169599.406              435287.844    7.1
              169564.344                435290.5    7.13
              169529.203              435293.406    7.16
              169493.969              435296.562    7.17
              169458.672              435299.938    7.22
              169423.297              435303.531    7.31
              169387.875              435307.312    7.23
              169352.406              435311.312    7.22
              169316.906              435315.469    7.24
              169281.375              435319.812    6.92
              169245.812              435324.312    6.6
              169210.328              435329.062    6.67
              169174.969              435334.125    6.73
              169139.703              435339.406    6.76
                169104.5              435344.875    6.72
              169069.359              435350.562    6.68
              169034.312              435356.438    6.71
              168999.266                435362.5    6.72
              168964.156              435368.844    6.74
              168928.906              435375.406    6.8
              168893.422              435382.219    6.88
              168857.609              435389.281    6.92
              168821.359              435396.562    7.07
              168784.578              435404.125    7.11
              168747.203              435411.906    6.77
              168709.172              435419.875    3.65
              168670.438              435428.031    4.85
              168630.938              435436.344    7.23
              168590.656              435444.812    7.35
              168549.547              435453.406    7.24
              168507.531                  435462    7.24
              168464.562              435470.594    7.44
              168420.672              435479.094    7.2
              168375.906              435487.406    7.07
              168330.391              435495.469    7.01
              168284.266               435503.25    5.76
              168237.656              435510.656    6.81
              168190.672              435517.688    7.38
              168143.438               435524.25    7.27
              168096.047              435530.375    3.62
              168048.609                  435536    3.49
              168001.172              435541.156    3.49
              167953.781              435545.875    4.63
              167906.484              435549.906    6.08
              175371.625              434941.594    8.53
              175328.547               434940.25    3.96
              175286.281              434938.812    4.04
              175244.875              434937.312    8
              175204.312              434935.812    8.39
              175164.516              434934.312    9.24
              175125.453              434932.875    7.53
              175087.047                434931.5    7.55
              175049.281              434930.219    7.41
              175012.094              434929.062    7.53
              174975.422              434928.062    8.77
              174939.219               434927.25    9.27
              174903.406              434926.625    8.62
              174867.938               434926.25    8.38
              174832.719              434926.062    8.26
              174797.672              434926.094    8.05
              174762.719              434926.312    8.25
              174727.812              434926.781    8.46
              174692.891              434927.469    8.56
              174657.891              434928.344    8.66
              174622.766              434929.531    8.79
              174587.469              434931.125    8.95
              174552.031              434933.031    8.96
              174516.484              434935.125    8.71
              174480.844              434937.375    8.68
              174445.078              434939.812    9.25
              174409.203              434942.469    9.52
              174373.234              434945.312    6.09
              174337.156              434948.312    -1.66
                  174301                434951.5    -5.31
              174264.766              434954.875    -9.12
              174228.484              434958.406    -10.77
              174192.156              434962.094    -13.29
              174155.797              434965.969    -16.6
              174119.438              434969.969    -17.15
              174083.062              434974.125    -17.18
              174046.703              434978.438    -14.45
              174010.359              434982.906    -12.01
              173974.047              434987.531    -5.94
              173937.781              434992.312    -4.19
              173901.547              434997.219    0.19
              173865.375              435002.312    7.3
              173829.266              435007.531    8.92
              173793.234              435012.906    9.71
               173757.25              435018.406    7.16
              173721.312              435024.094    0.23
              173685.406              435029.969    -3.77
              173649.516              435036.031    -10.6
              173613.625               435042.25    -13.79
              173577.703              435048.656    -14.8
               173541.75              435055.281    -14.24
               173505.75              435062.094    -13.04
              173469.656              435069.125    -12.05
              173433.453              435076.344    -9.06
              173397.109               435083.75    -5.17
              173360.578              435091.344    1.13
              173323.828              435099.094    6.36
              173286.828              435107.062    8.35
              173249.547              435115.188    8.04
              173211.953                435123.5    7.84
              173174.031              435131.938    7.6
              173135.734              435140.531    7.85
              173097.062               435149.25    7.83
              173057.969              435158.062    7.9
              173018.453              435166.969    7.93
              172978.484              435175.938    7.87
              172938.031              435184.938    7.78
              172897.109                  435194    8.11
              172855.672              435203.062    8.32
              172813.719              435212.094    7.99
              172771.266              435221.031    8.54
              170839.969               435338.25    8.23
              170798.438              435336.844    8.11
              170756.984              435335.344    7.73
              170715.641               435333.75    7.25
              170674.438              435332.062    8.02
              170633.391              435330.344    7.37
              170592.547              435328.562    6.98
              170551.938              435326.719    7.08
              170511.578              435324.844    6.88
              170471.516              435322.938    6.93
               170431.75                  435321    6.82
              170392.328              435319.094    6.74
               170353.25              435317.188    6.96
              170314.531              435315.344    7.02
              170276.188              435313.594    7.01
               170238.25              435311.938    7.11
              170200.719              435310.406    7.31
              170163.609              435309.031    7.29
              170126.906              435307.812    7.26
              170090.562              435306.781    7.32
              170054.547              435305.969    7.14
              170018.844              435305.344    7.02
              169983.406              435304.969    6.91
              169948.203              435304.812    6.89
              169913.203              435304.906    6.87
              169878.359               435305.25    6.78
              169843.656              435305.875    6.8
              169809.047              435306.781    6.94
                169774.5              435307.938    7.01
              169739.984              435309.344    6.62
              169705.469              435311.031    6.56
              169670.906              435312.969    6.73
               169636.25              435315.156    6.66
                169601.5              435317.594    3.46
              169566.641               435320.25    7.06
              169531.688              435323.156    7.1
              169496.641              435326.281    7.09
              169461.516              435329.656    7.1
              169426.328              435333.219    7.21
              169391.078              435336.969    7.16
              169355.781              435340.938    7.13
              169320.453              435345.094    7.12
              169285.078              435349.406    6.79
              169249.688              435353.906    6.6
              169214.359              435358.625    6.62
              169179.172              435363.656    6.7
              169144.078              435368.906    6.74
              169109.047              435374.344    6.69
              169074.094                  435380    6.68
              169039.219              435385.844    6.72
              169004.359              435391.906    6.75
              168969.422              435398.219    6.77
              168934.344               435404.75    6.88
              168899.016              435411.531    6.97
              168863.344              435418.562    7.02
              168827.203              435425.844    7.09
              168790.531              435433.375    7.15
              168753.234              435441.156    6.97
               168715.25              435449.156    6.63
              168676.531              435457.312    6.74
              168637.016              435465.656    7.24
              168596.688              435474.125    7.3
              168555.484              435482.719    7.11
              168513.359              435491.344    7.17
               168470.25              435499.969    7.26
              168426.156                435508.5    7.13
              168381.172              435516.875    7.11
              168335.406                  435525    7.13
              168289.016              435532.844    5.56
              168242.125              435540.312    6.55
              168194.859              435547.375    7.2
              168147.328                  435554    6.07
              168099.641              435560.156    3.49
              168051.906              435565.812    3.49
              168004.156              435571.031    4.02
              167956.406              435575.875    6.32
              175370.906              434971.438    8.53
              175327.719              434970.094    8.94
              175285.359              434968.656    3.96
              175243.906              434967.125    5.54
              175203.312              434965.594    7.96
              175163.531              434964.094    8.45
                175124.5              434962.656    8.06
              175086.141               434961.25    7.36
              175048.453              434959.969    7.44
              175011.375              434958.844    7.66
              174974.844              434957.875    8.38
              174938.781              434957.062    9.11
              174903.125              434956.438    8.89
              174867.828              434956.062    8.52
              174832.797              434955.875    7.98
              174797.938              434955.875    7.82
              174763.172              434956.125    8.18
              174728.469              434956.594    8.35
              174693.734              434957.281    8.46
              174658.922              434958.156    8.56
              174623.984              434959.312    8.66
              174588.859              434960.906    8.8
              174553.594              434962.781    8.74
              174518.219              434964.875    8.7
               174482.75              434967.125    8.21
              174447.141              434969.562    8.95
              174411.422              434972.219    9.19
              174375.594              434975.031    8.56
              174339.672              434978.031    4.93
              174303.656              434981.219    -4.2
              174267.562              434984.562    -5.12
              174231.406              434988.062    -7.35
              174195.219               434991.75    -6.39
              174158.984              434995.594    -9.89
               174122.75              434999.594    -10.88
              174086.516               435003.75    -17.02
              174050.281              435008.031    -16.4
              174014.078                435012.5    -16.12
              173977.891              435017.094    -12.95
               173941.75              435021.844    -4.97
              173905.641               435026.75    -4.22
              173869.594              435031.812    2.38
              173833.625              435037.031    7.12
              173797.719              435042.375    9.03
              173761.875              435047.875    9.34
              173726.078              435053.531    7.41
              173690.312              435059.375    0.89
              173654.547              435065.406    -5.64
              173618.797              435071.625    -8.47
              173583.016                  435078    -11.19
              173547.188              435084.594    -12.76
              173511.312              435091.406    -13.2
              173475.344              435098.406    -13.14
              173439.266              435105.594    -10.96
              173403.016              435112.969    -5.12
              173366.578              435120.531    1.03
              173329.922              435128.281    6.88
              173293.016              435136.219    8.09
              173255.797              435144.344    7.76
              173218.266              435152.625    7.61
              173180.375              435161.062    7.82
              173142.109              435169.656    7.84
              173103.453              435178.375    7.79
              173064.359              435187.188    7.93
              173024.828              435196.094    8.12
              172984.797              435205.062    8.13
              172944.297              435214.094    8.32
              172903.328              435223.188    8.11
              172861.812              435232.281    8.32
              170797.406              435366.656    8.11
              170755.891              435365.156    8.2
                170714.5              435363.562    7.36
               170673.25              435361.875    7.85
              170632.172              435360.125    8
              170591.297              435358.344    7.53
              170550.656                435356.5    7.16
              170510.281              435354.625    7.01
              170470.203              435352.719    6.95
              170430.453              435350.781    6.93
              170391.062              435348.875    6.86
              170352.016              435346.969    6.89
              170313.344              435345.125    6.95
              170275.062              435343.375    6.95
              170237.188              435341.719    6.97
               170199.75              435340.219    7.21
               170162.75              435338.844    7.39
              170126.172              435337.625    7.31
              170089.969              435336.594    7.47
              170054.109              435335.781    7.56
              170018.578              435335.156    6.99
              169983.312              435334.781    6.89
              169948.297              435334.625    6.88
              169913.484              435334.719    6.84
              169878.844              435335.062    6.82
              169844.344              435335.688    6.84
              169809.938              435336.594    6.87
              169775.594               435337.75    6.87
              169741.297              435339.156    6.69
              169706.984              435340.812    6.54
              169672.625               435342.75    6.44
              169638.172              435344.906    2.89
              169603.609              435347.344    2.89
              169568.938                  435350    2.89
              169534.172              435352.875    7
              169499.312                  435356    6.99
              169464.359              435359.344    6.96
              169429.344              435362.875    7.09
              169394.266              435366.625    7.07
              169359.156              435370.562    7.08
              169323.984              435374.688    7.35
              169288.781                  435379    6.75
              169253.547              435383.469    6.59
              169218.391              435388.188    6.63
              169183.375              435393.188    6.66
              169148.469              435398.406    6.68
              169113.609              435403.812    6.72
              169078.828              435409.438    6.73
              169044.125              435415.281    6.76
              169009.453              435421.312    6.76
              168974.703              435427.562    6.8
              168939.781              435434.062    6.93
              168904.609              435440.812    7.05
              168869.078              435447.844    7.06
              168833.062              435455.125    7.08
                168796.5              435462.625    7.16
              168759.266              435470.406    7.12
              168721.328              435478.406    6.84
              168682.625              435486.594    5.96
              168643.094              435494.938    6.75
              168602.719              435503.438    7.18
              168561.422              435512.031    7.16
              168519.188              435520.688    7.13
              168475.938              435529.344    7.07
              168431.656              435537.938    7.05
              168386.438              435546.375    7.1
              168340.422              435554.562    6.9
              168293.766              435562.438    5.42
              168246.594              435569.938    6.38
              168199.047              435577.062    6.88
              168151.219              435583.719    3.49
              168103.234              435589.906    3.49
              168055.203              435595.594    6.66
              168007.141              435600.781    6.83
              167959.078                435605.5    6.32
              175326.875              434999.938    8.94
              175284.438                434998.5    8.9
              175242.922              434996.969    3.96
              175202.297              434995.406    7.1
              175162.531              434993.906    8.11
              175123.531              434992.438    8.66
              175085.234              434991.031    7.29
              175047.625               434989.75    7.47
              175010.656              434988.625    7.63
               174974.25              434987.688    8.16
              174938.328              434986.906    8.72
              174902.844              434986.281    8.91
              174867.719              434985.875    8.47
              174832.859              434985.688    8.48
              174798.203              434985.688    7.75
              174763.641              434985.938    8.05
              174729.125              434986.406    8.26
              174694.578              434987.094    8.36
              174659.953              434987.969    8.46
              174625.203              434989.125    8.55
              174590.266              434990.719    8.65
              174555.172              434992.594    8.7
              174519.969              434994.656    8.85
              174484.656              434996.906    8.95
              174449.203              434999.344    9.04
              174413.641              435001.969    9.17
              174377.953              435004.781    9.04
              174342.172              435007.781    9.53
              174306.297              435010.938    1.12
              174270.344              435014.281    1.57
              174234.328              435017.781    -4.03
              174198.281              435021.438    -3.69
              174162.188              435025.281    -3.39
              174126.078               435029.25    -4.66
              174089.969              435033.375    -14.26
              174053.859              435037.656    -15.14
              174017.781              435042.094    -16.61
              173981.719              435046.688    -16.23
              173945.703              435051.438    -4.95
              173909.734              435056.312    -9.62
              173873.828              435061.344    -6.21
              173837.984              435066.531    0.21
              173802.219              435071.875    6.01
              173766.516              435077.344    8.93
              173730.859                  435083    9.27
              173695.219              435088.812    8.84
              173659.594              435094.812    2
              173623.969                  435101    -3.55
              173588.312              435107.375    -7.75
              173552.625              435113.938    -8.98
              173516.875              435120.719    -9.73
              173481.031              435127.688    -9.24
              173445.062              435134.844    -6.29
              173408.922              435142.219    -0.32
              173372.578               435149.75    3.57
              173336.016                435157.5    8.07
              173299.188              435165.438    8.19
              173262.047              435173.531    7.99
              173224.578              435181.781    7.87
              173186.734              435190.219    7.87
                173148.5              435198.781    7.86
              173109.844                435207.5    7.88
               173070.75              435216.312    8.09
              173031.172              435225.219    8.24
              172991.109              435234.188    8.13
              172950.578               435243.25    8.32
              170754.797              435394.969    8.2
              170713.359              435393.375    7.78
              170672.062              435391.688    7.76
              170630.938              435389.938    7.94
              170590.031              435388.156    7.82
              170549.375              435386.312    7.36
              170508.984              435384.438    7.11
              170468.906              435382.531    6.91
              170429.172              435380.594    6.93
              170389.797              435378.688    7
              170350.781              435376.781    6.97
              170312.156              435374.938    6.89
              170273.938              435373.188    6.93
              170236.141              435371.531    6.9
              170198.797              435370.031    7.15
              170161.906              435368.656    7.32
              170125.453              435367.469    7.33
              170089.391              435366.438    7.55
              170053.688              435365.625    6.86
              170018.312                  435365    6.73
              169983.219              435364.625    6.9
              169948.375              435364.469    6.9
               169913.75              435364.562    6.87
              169879.312              435364.906    6.87
              169845.016              435365.531    6.88
              169810.812              435366.406    6.9
              169776.688              435367.562    6.91
              169742.594              435368.969    2.81
              169708.484              435370.625    2.81
              169674.328              435372.531    4.22
              169640.078              435374.688    3
              169605.719              435377.094    2.89
              169571.234               435379.75    2.89
              169536.656              435382.625    6.85
              169501.984              435385.719    6.95
              169467.219              435389.031    6.95
              169432.375              435392.562    6.99
              169397.469              435396.281    7.04
              169362.516              435400.219    7.01
              169327.516              435404.344    7.43
              169292.484              435408.625    7.19
              169257.422              435413.062    7.27
              169222.422               435417.75    6.73
              169187.578              435422.719    6.71
              169152.859              435427.906    6.75
              169118.188              435433.312    6.65
              169083.578              435438.906    6.74
              169049.062              435444.719    6.82
              169014.562              435450.719    6.82
              168979.984              435456.938    6.76
              168945.234              435463.406    6.9
              168910.219              435470.125    7.04
              168874.828              435477.125    7.02
              168838.938              435484.406    7.07
              168802.469              435491.906    7.16
              168765.312              435499.656    7.08
              168727.422              435507.625    7
              168688.734              435515.844    6.7
              168649.188              435524.219    5.85
              168608.766              435532.719    6.9
              168567.391              435541.344    7.19
              168525.031              435550.031    7.17
              168481.625               435558.75    7.02
              168437.156              435567.375    6.98
              168391.719              435575.875    7.04
              168345.469              435584.125    6.93
              168298.531              435592.062    5.27
              168251.078              435599.625    6.44
              168203.219              435606.781    3.49
              168155.094              435613.469    3.49
              168106.812              435619.656    6.85
              168058.469              435625.375    4.14
              168010.109                435630.5    6.66
               167961.75              435635.031    6.66
                175283.5              435028.375    8.9
              175241.922              435026.812    5.54
              175201.281               435025.25    3.96
              175161.516              435023.719    7.86
              175122.562               435022.25    7.92
              175084.328              435020.844    7.55
              175046.797              435019.594    7.42
              175009.938              435018.469    7.41
              174973.656              435017.531    7.63
              174937.875              435016.781    8.45
              174902.562              435016.156    8.8
              174867.594               435015.75    9.06
              174832.922              435015.562    8.37
              174798.453              435015.562    7.96
              174764.094              435015.812    7.87
              174729.781              435016.281    8.05
              174695.438              435016.969    8.27
              174661.016              435017.844    8.39
              174626.438                  435019    8.48
              174591.672              435020.594    8.56
               174556.75              435022.469    8.69
              174521.719              435024.531    8.83
              174486.562               435026.75    8.94
              174451.281              435029.188    9
              174415.859              435031.781    9.13
              174380.328              435034.594    8.39
              174344.688              435037.562    9.48
              174308.953              435040.719    5.44
              174273.141              435044.031    7.6
              174237.266                435047.5    4.96
              174201.344              435051.156    -3.37
              174165.391                  435055    -5.91
              174129.406              435058.938    -5.78
              174093.422              435063.031    -5.05
              174057.438              435067.312    -12.6
              174021.484               435071.75    -15.74
              173985.562              435076.312    -15.52
              173949.672              435081.031    -7.91
              173913.844              435085.906    -10.28
              173878.078              435090.938    -9.26
              173842.359              435096.094    -6.08
              173806.719              435101.406    -1.37
              173771.156              435106.875    5.36
              173735.625                435112.5    8.69
              173700.125              435118.281    9.44
              173664.641              435124.281    9.15
              173629.156              435130.438    3.92
              173593.641              435136.781    -1.21
              173558.078              435143.312    -2.82
              173522.453              435150.062    -4.28
              173486.734              435157.031    -4.09
              173450.875              435164.156    -1.31
              173414.844              435171.531    3.43
              173378.609              435179.031    8
              173342.125               435186.75    8.19
              173305.375              435194.688    8.04
              173268.312               435202.75    7.81
              173230.906              435210.969    7.87
              173193.109              435219.406    7.92
              173154.906              435227.969    7.99
               173116.25              435236.688    8.31
              173077.109                435245.5    8.09
              173037.469              435254.438    8.24
              170712.234              435423.219    8.14
              170670.875              435421.562    7.82
              170629.703              435419.812    7.85
              170588.766              435418.031    7.89
              170548.094              435416.188    7.64
              170507.688              435414.281    7.26
              170467.609              435412.375    7.06
              170427.891              435410.438    6.97
              170388.531              435408.531    7.04
              170349.547              435406.625    6.99
