       12.450000        -0.700000        -0.043137 
       12.450000        -0.650000        -0.043207 
       12.450000        -0.600000        -0.043276 
       12.450000        -0.550000        -0.043345 
       12.450000        -0.500000        -0.043415 
       12.450000        -0.450000        -0.043484 
       12.450000        -0.400000        -0.043553 
       12.450000        -0.350000        -0.043623 
       12.450000        -0.300000        -0.043692 
       12.450000        -0.250000        -0.043762 
       12.450000        -0.200000        -0.043831 
       12.450000        -0.150000        -0.043900 
       12.450000        -0.100000        -0.043970 
       12.450000        -0.050000        -0.044039 
       12.450000         0.000000        -0.044108 
       12.449892         0.051913        -0.044178 
       12.449567         0.103825        -0.044247 
       12.449026         0.155735        -0.044316 
       12.448268         0.207643        -0.044386 
       12.447294         0.259547        -0.044455 
       12.446104         0.311446        -0.044524 
       12.444697         0.363340        -0.044594 
       12.443074         0.415228        -0.044663 
       12.441234         0.467108        -0.044732 
       12.439178         0.518981        -0.044802 
       12.436906         0.570844        -0.044871 
       12.434418         0.622698        -0.044940 
       12.431713         0.674540        -0.045010 
       12.428793         0.726371        -0.045079 
       12.425656         0.778189        -0.045148 
       12.422303         0.829994        -0.045218 
       12.418734         0.881784        -0.045287 
       12.414949         0.933559        -0.045356 
       12.410949         0.985318        -0.045426 
       12.406732         1.037059        -0.045495 
       12.402300         1.088783        -0.045564 
       12.397653         1.140488        -0.045634 
       12.392789         1.192172        -0.045703 
       12.387710         1.243836        -0.045773 
       12.382416         1.295479        -0.045842 
       12.376907         1.347099        -0.045911 
       12.371182         1.398695        -0.045981 
       12.365243         1.450267        -0.046050 
       12.359088         1.501814        -0.046119 
       12.352718         1.553335        -0.046189 
       12.346134         1.604829        -0.046258 
       12.339335         1.656295        -0.046327 
       12.332321         1.707732        -0.046397 
       12.325093         1.759139        -0.046466 
       12.317651         1.810516        -0.046535 
       12.309995         1.861862        -0.046605 
       12.302124         1.913175        -0.046674 
       12.294040         1.964454        -0.046743 
       12.285742         2.015700        -0.046813 
       12.277230         2.066911        -0.046882 
       12.268505         2.118085        -0.046951 
       12.259567         2.169223        -0.047021 
       12.250415         2.220323        -0.047090 
       12.241050         2.271384        -0.047159 
       12.231473         2.322406        -0.047229 
       12.221683         2.373388        -0.047298 
       12.211680         2.424328        -0.047367 
       12.201465         2.475226        -0.047437 
       12.191038         2.526082        -0.047506 
       12.180399         2.576893        -0.047575 
       12.169548         2.627659        -0.047645 
       12.158486         2.678380        -0.047714 
       12.147212         2.729054        -0.047784 
       12.135727         2.779681        -0.047853 
       12.124031         2.830259        -0.047922 
       12.112124         2.880788        -0.047992 
       12.100007         2.931267        -0.048061 
       12.087679         2.981696        -0.048130 
       12.075141         3.032072        -0.048200 
       12.062394         3.082395        -0.048269 
       12.049436         3.132665        -0.048338 
       12.036269         3.182881        -0.048408 
       12.022893         3.233041        -0.048477 
       12.009307         3.283145        -0.048546 
       11.995513         3.333192        -0.048616 
       11.981510         3.383181        -0.048685 
       11.967299         3.433111        -0.048754 
       11.952880         3.482981        -0.048824 
       11.938253         3.532791        -0.048893 
       11.923419         3.582539        -0.048962 
       11.908377         3.632226        -0.049032 
       11.893128         3.681849        -0.049101 
       11.877672         3.731408        -0.049170 
       11.862010         3.780902        -0.049240 
       11.846142         3.830330        -0.049309 
       11.830067         3.879692        -0.049378 
       11.813787         3.928986        -0.049448 
       11.797302         3.978212        -0.049517 
       11.780611         4.027369        -0.049586 
       11.763716         4.076456        -0.049656 
       11.746616         4.125472        -0.049725 
       11.729312         4.174416        -0.049795 
       11.711804         4.223287        -0.049864 
       11.694092         4.272086        -0.049933 
       11.676177         4.320809        -0.050003 
       11.658059         4.369458        -0.050072 
       11.639738         4.418031        -0.050141 
       11.621215         4.466527        -0.050211 
       11.602490         4.514945        -0.050280 
       11.583563         4.563285        -0.050349 
       11.564435         4.611546        -0.050419 
       11.545105         4.659726        -0.050488 
       11.525575         4.707825        -0.050557 
       11.505845         4.755843        -0.050627 
       11.485914         4.803778        -0.050696 
       11.465784         4.851629        -0.050765 
       11.445454         4.899396        -0.050835 
       11.424926         4.947077        -0.050904 
       11.404198         4.994673        -0.050973 
       11.383273         5.042182        -0.051043 
       11.362149         5.089603        -0.051112 
       11.340828         5.136936        -0.051181 
       11.319310         5.184179        -0.051251 
       11.297595         5.231333        -0.051320 
       11.275684         5.278395        -0.051389 
       11.253576         5.325365        -0.051459 
       11.231273         5.372243        -0.051528 
       11.208775         5.419028        -0.051597 
       11.186082         5.465718        -0.051667 
       11.163194         5.512313        -0.051736 
       11.140112         5.558813        -0.051805 
       11.116837         5.605216        -0.051875 
       11.093368         5.651521        -0.051944 
       11.069706         5.697728        -0.052014 
       11.045852         5.743836        -0.052083 
       11.021806         5.789844        -0.052152 
       10.997568         5.835752        -0.052222 
       10.973139         5.881558        -0.052291 
       10.948519         5.927261        -0.052360 
       10.923709         5.972862        -0.052430 
       10.898709         6.018359        -0.052499 
       10.873519         6.063751        -0.052568 
       10.848141         6.109038        -0.052638 
       10.822573         6.154218        -0.052707 
       10.796818         6.199292        -0.052776 
       10.770875         6.244258        -0.052846 
       10.744744         6.289115        -0.052915 
       10.718427         6.333863        -0.052984 
       10.691924         6.378501        -0.053054 
       10.665234         6.423027        -0.053123 
       10.638359         6.467443        -0.053192 
       10.611299         6.511745        -0.053262 
       10.584055         6.555935        -0.053331 
       10.556627         6.600010        -0.053400 
       10.529015         6.643971        -0.053470 
       10.501220         6.687816        -0.053539 
       10.473242         6.731545        -0.053608 
       10.445082         6.775157        -0.053678 
       10.416741         6.818651        -0.053747 
       10.388219         6.862027        -0.053816 
       10.359516         6.905283        -0.053886 
       10.330632         6.948419        -0.053955 
       10.301570         6.991435        -0.054025 
       10.272328         7.034329        -0.054094 
       10.242907         7.077100        -0.054163 
       10.213309         7.119749        -0.054233 
       10.183533         7.162273        -0.054302 
       10.153580         7.204674        -0.054371 
       10.123450         7.246949        -0.054441 
       10.093144         7.289097        -0.054510 
       10.062663         7.331120        -0.054579 
       10.032007         7.373014        -0.054649 
       10.001176         7.414781        -0.054718 
        9.970172         7.456419        -0.054787 
        9.938994         7.497926        -0.054857 
        9.907643         7.539304        -0.054926 
        9.876120         7.580551        -0.054995 
        9.844426         7.621665        -0.055065 
        9.812560         7.662648        -0.055134 
        9.780524         7.703497        -0.055203 
        9.748317         7.744212        -0.055273 
        9.715941         7.784792        -0.055342 
        9.683396         7.825237        -0.055411 
        9.650683         7.865546        -0.055481 
        9.617802         7.905718        -0.055550 
        9.584754         7.945753        -0.055619 
        9.551539         7.985650        -0.055689 
        9.518158         8.025407        -0.055758 
        9.484612         8.065026        -0.055827 
        9.450900         8.104504        -0.055897 
        9.417025         8.143841        -0.055966 
        9.382985         8.183036        -0.056036 
        9.348783         8.222090        -0.056105 
        9.314418         8.261000        -0.056174 
        9.279891         8.299767        -0.056244 
        9.245203         8.338389        -0.056313 
        9.210353         8.376866        -0.056382 
        9.175344         8.415198        -0.056452 
        9.140175         8.453383        -0.056521 
        9.104848         8.491422        -0.056590 
        9.069362         8.529313        -0.056660 
        9.033718         8.567055        -0.056729 
        8.997917         8.604649        -0.056798 
        8.961960         8.642093        -0.056868 
        8.925847         8.679387        -0.056937 
        8.889579         8.716529        -0.057006 
        8.853156         8.753521        -0.057076 
        8.816580         8.790360        -0.057145 
        8.779850         8.827046        -0.057214 
        8.742967         8.863579        -0.057284 
        8.705933         8.899957        -0.057353 
        8.668747         8.936181        -0.057422 
        8.631410         8.972250        -0.057492 
        8.593923         9.008162        -0.057561 
        8.556287         9.043918        -0.057630 
        8.518502         9.079517        -0.057700 
        8.480569         9.114958        -0.057769 
        8.442488         9.150240        -0.057838 
        8.404261         9.185363        -0.057908 
        8.365888         9.220327        -0.057977 
        8.327369         9.255130        -0.058047 
        8.288705         9.289772        -0.058116 
        8.249897         9.324253        -0.058185 
        8.210946         9.358572        -0.058255 
        8.171852         9.392728        -0.058324 
        8.132616         9.426720        -0.058393 
        8.093239         9.460549        -0.058463 
        8.053720         9.494213        -0.058532 
        8.014062         9.527713        -0.058601 
        7.974265         9.561046        -0.058671 
        7.934329         9.594213        -0.058740 
        7.894254         9.627214        -0.058809 
        7.854043         9.660047        -0.058879 
        7.813695         9.692712        -0.058948 
        7.773211         9.725209        -0.059017 
        7.732592         9.757536        -0.059087 
        7.691839         9.789694        -0.059156 
        7.650952         9.821682        -0.059225 
        7.609932         9.853499        -0.059295 
        7.568779         9.885144        -0.059364 
        7.527495         9.916618        -0.059433 
        7.486080         9.947919        -0.059503 
        7.444535         9.979048        -0.059572 
        7.402861        10.010003        -0.059641 
        7.361058        10.040783        -0.059711 
        7.319126        10.071390        -0.059780 
        7.277068        10.101821        -0.059849 
        7.234883        10.132076        -0.059919 
        7.192572        10.162156        -0.059988 
        7.150136        10.192058        -0.060058 
        7.107576        10.221784        -0.060127 
        7.064892        10.251331        -0.060196 
        7.022086        10.280701        -0.060266 
        6.979157        10.309892        -0.060335 
        6.936107        10.338903        -0.060404 
        6.892937        10.367735        -0.060474 
        6.849646        10.396386        -0.060543 
        6.806237        10.424857        -0.060612 
        6.762709        10.453146        -0.060682 
        6.719063        10.481254        -0.060751 
        6.675301        10.509180        -0.060820 
        6.631423        10.536922        -0.060890 
        6.587429        10.564482        -0.060959 
        6.543321        10.591858        -0.061028 
        6.499099        10.619050        -0.061098 
        6.454764        10.646057        -0.061167 
        6.410317        10.672879        -0.061236 
        6.365758        10.699515        -0.061306 
        6.321089        10.725965        -0.061375 
        6.276310        10.752229        -0.061444 
        6.231421        10.778306        -0.061514 
        6.186425        10.804196        -0.061583 
        6.141321        10.829898        -0.061652 
        6.096110        10.855411        -0.061722 
        6.050793        10.880736        -0.061791 
        6.005370        10.905871        -0.061860 
        5.959844        10.930817        -0.061930 
        5.914214        10.955573        -0.061999 
        5.868481        10.980138        -0.062068 
        5.822646        11.004513        -0.062138 
        5.776709        11.028696        -0.062207 
        5.730672        11.052687        -0.062277 
        5.684536        11.076486        -0.062346 
        5.638301        11.100093        -0.062415 
        5.591968        11.123507        -0.062485 
        5.545537        11.146727        -0.062554 
        5.499010        11.169753        -0.062623 
        5.452388        11.192585        -0.062693 
        5.405670        11.215223        -0.062762 
        5.358859        11.237666        -0.062831 
        5.311955        11.259913        -0.062901 
        5.264958        11.281964        -0.062970 
        5.217869        11.303820        -0.063039 
        5.170690        11.325478        -0.063109 
        5.123421        11.346940        -0.063178 
        5.076063        11.368205        -0.063247 
        5.028617        11.389272        -0.063317 
        4.981083        11.410141        -0.063386 
        4.933463        11.430811        -0.063455 
        4.885757        11.451283        -0.063525 
        4.837966        11.471556        -0.063594 
        4.790090        11.491629        -0.063663 
        4.742132        11.511502        -0.063733 
        4.694091        11.531176        -0.063802 
        4.645969        11.550648        -0.063871 
        4.597765        11.569920        -0.063941 
        4.549482        11.588991        -0.064010 
        4.501120        11.607860        -0.064079 
        4.452679        11.626528        -0.064149 
        4.404161        11.644993        -0.064218 
        4.355566        11.663256        -0.064288 
        4.306896        11.681316        -0.064357 
        4.258151        11.699173        -0.064426 
        4.209332        11.716827        -0.064496 
        4.160439        11.734277        -0.064565 
        4.111474        11.751522        -0.064634 
        4.062438        11.768564        -0.064704 
        4.013331        11.785401        -0.064773 
        3.964154        11.802033        -0.064842 
        3.914909        11.818460        -0.064912 
        3.865595        11.834681        -0.064981 
        3.816214        11.850697        -0.065050 
        3.766767        11.866506        -0.065120 
        3.717254        11.882109        -0.065189 
        3.667677        11.897506        -0.065258 
        3.618036        11.912696        -0.065328 
        3.568332        11.927678        -0.065397 
        3.518566        11.942453        -0.065466 
        3.468739        11.957021        -0.065536 
        3.418851        11.971381        -0.065605 
        3.368904        11.985532        -0.065674 
        3.318899        11.999475        -0.065744 
        3.268835        12.013210        -0.065813 
        3.218715        12.026736        -0.065882 
        3.168539        12.040052        -0.065952 
        3.118308        12.053160        -0.066021 
        3.068023        12.066057        -0.066090 
        3.017684        12.078745        -0.066160 
        2.967293        12.091223        -0.066229 
        2.916850        12.103491        -0.066299 
        2.866357        12.115548        -0.066368 
        2.815813        12.127394        -0.066437 
        2.765221        12.139030        -0.066507 
        2.714581        12.150455        -0.066576 
        2.663893        12.161668        -0.066645 
        2.613159        12.172670        -0.066715 
        2.562380        12.183460        -0.066784 
        2.511556        12.194039        -0.066853 
        2.460688        12.204405        -0.066923 
        2.409778        12.214560        -0.066992 
        2.358826        12.224502        -0.067061 
        2.307833        12.234231        -0.067131 
        2.256799        12.243748        -0.067200 
        2.205727        12.253051        -0.067269 
        2.154616        12.262142        -0.067339 
        2.103468        12.271020        -0.067408 
        2.052283        12.279684        -0.067477 
        2.001062        12.288135        -0.067547 
        1.949807        12.296372        -0.067616 
        1.898517        12.304395        -0.067685 
        1.847195        12.312204        -0.067755 
        1.795840        12.319799        -0.067824 
        1.744455        12.327180        -0.067893 
        1.693039        12.334347        -0.067963 
        1.641593        12.341299        -0.068032 
        1.590119        12.348037        -0.068101 
        1.538618        12.354560        -0.068171 
        1.487089        12.360868        -0.068240 
        1.435535        12.366962        -0.068310 
        1.383956        12.372840        -0.068379 
        1.332353        12.378503        -0.068448 
        1.280726        12.383951        -0.068518 
        1.229077        12.389184        -0.068587 
        1.177407        12.394201        -0.068656 
        1.125717        12.399002        -0.068726 
        1.074007        12.403589        -0.068795 
        1.022278        12.407959        -0.068864 
        0.970531        12.412114        -0.068934 
        0.918768        12.416053        -0.069003 
        0.866988        12.419776        -0.069072 
        0.815194        12.423283        -0.069142 
        0.763385        12.426574        -0.069211 
        0.711563        12.429649        -0.069280 
        0.659729        12.432508        -0.069350 
        0.607883        12.435151        -0.069419 
        0.556027        12.437577        -0.069488 
        0.504161        12.439788        -0.069558 
        0.452286        12.441782        -0.069627 
        0.400404        12.443560        -0.069696 
        0.348514        12.445121        -0.069766 
        0.296618        12.446466        -0.069835 
        0.244718        12.447595        -0.069904 
        0.192812        12.448507        -0.069974 
        0.140904        12.449203        -0.070043 
        0.088993        12.449682        -0.070112 
        0.037081        12.449945        -0.070182 
       -0.014832        12.449991        -0.070251 
       -0.066745        12.449821        -0.070321 
       -0.118657        12.449435        -0.070390 
       -0.170566        12.448832        -0.070459 
       -0.222473        12.448012        -0.070529 
       -0.274376        12.446976        -0.070598 
       -0.326274        12.445724        -0.070667 
       -0.378166        12.444255        -0.070737 
       -0.430052        12.442570        -0.070806 
       -0.481930        12.440669        -0.070875 
       -0.533800        12.438551        -0.070945 
       -0.585660        12.436217        -0.071014 
       -0.637511        12.433667        -0.071083 
       -0.689350        12.430901        -0.071153 
       -0.741178        12.427918        -0.071222 
       -0.792992        12.424720        -0.071291 
       -0.844793        12.421305        -0.071361 
       -0.896579        12.417675        -0.071430 
       -0.948349        12.413828        -0.071499 
       -1.000103        12.409766        -0.071569 
       -1.051839        12.405488        -0.071638 
       -1.103558        12.400994        -0.071707 
       -1.155257        12.396285        -0.071777 
       -1.206936        12.391360        -0.071846 
       -1.258594        12.386220        -0.071915 
       -1.310230        12.380864        -0.071985 
       -1.361843        12.375293        -0.072054 
       -1.413433        12.369507        -0.072123 
       -1.464998        12.363506        -0.072193 
       -1.516537        12.357290        -0.072262 
       -1.568050        12.350859        -0.072332 
       -1.619536        12.344213        -0.072401 
       -1.670994        12.337353        -0.072470 
       -1.722423        12.330278        -0.072540 
       -1.773822        12.322989        -0.072609 
       -1.825190        12.315485        -0.072678 
       -1.876526        12.307768        -0.072748 
       -1.927829        12.299836        -0.072817 
       -1.979100        12.291691        -0.072886 
       -2.030335        12.283332        -0.072956 
       -2.081536        12.274759        -0.073025 
       -2.132700        12.265973        -0.073094 
       -2.183827        12.256974        -0.073164 
       -2.234916        12.247761        -0.073233 
       -2.285966        12.238336        -0.073302 
       -2.336977        12.228697        -0.073372 
       -2.387947        12.218847        -0.073441 
       -2.438875        12.208783        -0.073510 
       -2.489761        12.198508        -0.073580 
       -2.540604        12.188020        -0.073649 
       -2.591402        12.177321        -0.073718 
       -2.642156        12.166409        -0.073788 
       -2.692863        12.155286        -0.073857 
       -2.743524        12.143952        -0.073926 
       -2.794137        12.132407        -0.073996 
       -2.844701        12.120651        -0.074065 
       -2.895216        12.108684        -0.074134 
       -2.945681        12.096506        -0.074204 
       -2.996094        12.084119        -0.074273 
       -3.046455        12.071521        -0.074342 
       -3.096764        12.058713        -0.074412 
       -3.147018        12.045695        -0.074481 
       -3.197218        12.032468        -0.074551 
       -3.247362        12.019032        -0.074620 
       -3.297450        12.005387        -0.074689 
       -3.347480        11.991533        -0.074759 
       -3.397453        11.977471        -0.074828 
       -3.447366        11.963201        -0.074897 
       -3.497219        11.948722        -0.074967 
       -3.547011        11.934036        -0.075036 
       -3.596742        11.919142        -0.075105 
       -3.646410        11.904041        -0.075175 
       -3.696015        11.888733        -0.075244 
       -3.745555        11.873218        -0.075313 
       -3.795031        11.857497        -0.075383 
       -3.844440        11.841570        -0.075452 
       -3.893783        11.825437        -0.075521 
       -3.943058        11.809098        -0.075591 
       -3.992264        11.792554        -0.075660 
       -4.041401        11.775805        -0.075729 
       -4.090467        11.758851        -0.075799 
       -4.139463        11.741693        -0.075868 
       -4.188387        11.724330        -0.075937 
       -4.237237        11.706764        -0.076007 
       -4.286014        11.688994        -0.076076 
       -4.334717        11.671021        -0.076145 
       -4.383344        11.652845        -0.076215 
       -4.431895        11.634466        -0.076284 
       -4.480369        11.615885        -0.076353 
       -4.528765        11.597103        -0.076423 
       -4.577082        11.578118        -0.076492 
       -4.625320        11.558932        -0.076562 
       -4.673477        11.539546        -0.076631 
       -4.721553        11.519958        -0.076700 
       -4.769547        11.500171        -0.076770 
       -4.817458        11.480183        -0.076839 
       -4.865285        11.459996        -0.076908 
       -4.913028        11.439609        -0.076978 
       -4.960685        11.419024        -0.077047 
       -5.008256        11.398240        -0.077116 
       -5.055740        11.377258        -0.077186 
       -5.103136        11.356078        -0.077255 
       -5.150443        11.334700        -0.077324 
       -5.197661        11.313126        -0.077394 
       -5.244788        11.291355        -0.077463 
       -5.291824        11.269388        -0.077532 
       -5.338769        11.247224        -0.077602 
       -5.385620        11.224865        -0.077671 
       -5.432378        11.202311        -0.077740 
       -5.479041        11.179562        -0.077810 
       -5.525609        11.156619        -0.077879 
       -5.572081        11.133482        -0.077948 
       -5.618456        11.110151        -0.078018 
       -5.664733        11.086627        -0.078087 
       -5.710912        11.062910        -0.078156 
       -5.756991        11.039001        -0.078226 
       -5.802971        11.014900        -0.078295 
       -5.848849        10.990608        -0.078364 
       -5.894626        10.966124        -0.078434 
       -5.940301        10.941450        -0.078503 
       -5.985872        10.916585        -0.078573 
       -6.031339        10.891531        -0.078642 
       -6.076701        10.866288        -0.078711 
       -6.121958        10.840855        -0.078781 
       -6.167108        10.815234        -0.078850 
       -6.212150        10.789425        -0.078919 
       -6.257085        10.763428        -0.078989 
       -6.301911        10.737244        -0.079058 
       -6.346628        10.710874        -0.079127 
       -6.391234        10.684317        -0.079197 
       -6.435729        10.657574        -0.079266 
       -6.480112        10.630647        -0.079335 
       -6.524382        10.603534        -0.079405 
       -6.568540        10.576237        -0.079474 
       -6.612582        10.548756        -0.079543 
       -6.656510        10.521092        -0.079613 
       -6.700322        10.493245        -0.079682 
       -6.744018        10.465215        -0.079751 
       -6.787596        10.437003        -0.079821 
       -6.831057        10.408610        -0.079890 
       -6.874398        10.380036        -0.079959 
       -6.917620        10.351282        -0.080029 
       -6.960722        10.322347        -0.080098 
       -7.003703        10.293233        -0.080167 
       -7.046562        10.263940        -0.080237 
       -7.089298        10.234469        -0.080306 
       -7.131911        10.204819        -0.080375 
       -7.174401        10.174993        -0.080445 
       -7.216765        10.144989        -0.080514 
       -7.259004        10.114809        -0.080584 
       -7.301117        10.084453        -0.080653 
       -7.343103        10.053922        -0.080722 
       -7.384961        10.023216        -0.080792 
       -7.426691         9.992335        -0.080861 
       -7.468291         9.961281        -0.080930 
       -7.509762         9.930054        -0.081000 
       -7.551102         9.898654        -0.081069 
       -7.592311         9.867082        -0.081138 
       -7.633388         9.835339        -0.081208 
       -7.674332         9.803424        -0.081277 
       -7.715143         9.771339        -0.081346 
       -7.755820         9.739084        -0.081416 
       -7.796362         9.706660        -0.081485 
       -7.836768         9.674067        -0.081554 
       -7.877038         9.641306        -0.081624 
       -7.917171         9.608377        -0.081693 
       -7.957166         9.575281        -0.081762 
       -7.997023         9.542019        -0.081832 
       -8.036741         9.508590        -0.081901 
       -8.076319         9.474997        -0.081970 
       -8.115757         9.441238        -0.082040 
       -8.155054         9.407316        -0.082109 
       -8.194209         9.373230        -0.082178 
       -8.233221         9.338981        -0.082248 
       -8.272091         9.304570        -0.082317 
       -8.310816         9.269996        -0.082386 
       -8.349397         9.235262        -0.082456 
       -8.387833         9.200367        -0.082525 
       -8.426123         9.165312        -0.082595 
       -8.464267         9.130098        -0.082664 
       -8.502263         9.094725        -0.082733 
       -8.540112         9.059194        -0.082803 
       -8.577812         9.023505        -0.082872 
       -8.615362         8.987660        -0.082941 
       -8.652764         8.951658        -0.083011 
       -8.690014         8.915501        -0.083080 
       -8.727114         8.879188        -0.083149 
       -8.764062         8.842722        -0.083219 
       -8.800857         8.806101        -0.083288 
       -8.837499         8.769327        -0.083357 
       -8.873988         8.732401        -0.083427 
       -8.910323         8.695323        -0.083496 
       -8.946502         8.658094        -0.083565 
       -8.982526         8.620715        -0.083635 
       -9.018394         8.583185        -0.083704 
       -9.054105         8.545506        -0.083773 
       -9.089659         8.507679        -0.083843 
       -9.125054         8.469704        -0.083912 
       -9.160291         8.431581        -0.083981 
       -9.195369         8.393312        -0.084051 
       -9.230287         8.354897        -0.084120 
       -9.265044         8.316337        -0.084189 
       -9.299640         8.277632        -0.084259 
       -9.334075         8.238783        -0.084328 
       -9.368347         8.199791        -0.084397 
       -9.402457         8.160656        -0.084467 
       -9.436402         8.121380        -0.084536 
       -9.470184         8.081962        -0.084605 
       -9.503801         8.042404        -0.084675 
       -9.537253         8.002706        -0.084744 
       -9.569393         7.964404        -0.084814 
       -9.601532         7.926101        -0.084883 
       -9.633671         7.887799        -0.084952 
       -9.665811         7.849497        -0.085022 
       -9.697950         7.811195        -0.085091 
       -9.730090         7.772892        -0.085160 
       -9.762229         7.734590        -0.085230 
       -9.794368         7.696288        -0.085299 
       -9.826508         7.657986        -0.085368 
       -9.858647         7.619684        -0.085438 
       -9.890787         7.581381        -0.085507 
       -9.922926         7.543079        -0.085576 
       -9.955065         7.504777        -0.085646 
       -9.987205         7.466475        -0.085715 
      -10.019344         7.428172        -0.085784 
      -10.051483         7.389870        -0.085854 
      -10.083623         7.351568        -0.085923 
      -10.115762         7.313266        -0.085992 
      -10.147902         7.274964        -0.086062 
      -10.180041         7.236661        -0.086131 
      -10.212180         7.198359        -0.086200 
      -10.244320         7.160057        -0.086270 
      -10.276459         7.121755        -0.086339 
      -10.308598         7.083452        -0.086408 
      -10.340738         7.045150        -0.086478 
      -10.372877         7.006848        -0.086547 
      -10.405017         6.968546        -0.086616 
      -10.437156         6.930244        -0.086686 
      -10.469295         6.891941        -0.086755 
      -10.501435         6.853639        -0.086825 
      -10.533574         6.815337        -0.086894 
      -10.565713         6.777035        -0.086963 
      -10.597853         6.738732        -0.087033 
      -10.629992         6.700430        -0.087102 
      -10.662132         6.662128        -0.087171 
      -10.694271         6.623826        -0.087241 
      -10.726410         6.585524        -0.087310 
      -10.758550         6.547221        -0.087379 
      -10.790689         6.508919        -0.087449 
      -10.822829         6.470617        -0.087518 
      -10.854968         6.432315        -0.087587 
      -10.887107         6.394012        -0.087657 
      -10.919247         6.355710        -0.087726 
      -10.951386         6.317408        -0.087795 
      -10.983525         6.279106        -0.087865 
      -11.015665         6.240804        -0.087934 
      -11.047804         6.202501        -0.088003 
      -11.079944         6.164199        -0.088073 
      -11.112083         6.125897        -0.088142 
      -11.144222         6.087595        -0.088211 
      -11.176362         6.049292        -0.088281 
      -11.208501         6.010990        -0.088350 
      -11.240640         5.972688        -0.088419 
      -11.272780         5.934386        -0.088489 
      -11.304919         5.896084        -0.088558 
      -11.337059         5.857781        -0.088627 
      -11.369198         5.819479        -0.088697 
      -11.401337         5.781177        -0.088766 
      -11.433477         5.742875        -0.088836 
      -11.465616         5.704572        -0.088905 
      -11.497756         5.666270        -0.088974 
      -11.529895         5.627968        -0.089044 
      -11.562034         5.589666        -0.089113 
      -11.594174         5.551364        -0.089182 
      -11.626313         5.513061        -0.089252 
      -11.658452         5.474759        -0.089321 
      -11.690592         5.436457        -0.089390 
      -11.722731         5.398155        -0.089460 
      -11.754871         5.359852        -0.089529 
      -11.787010         5.321550        -0.089598 
      -11.819149         5.283248        -0.089668 
      -11.851289         5.244946        -0.089737 
      -11.883428         5.206644        -0.089806 
      -11.915567         5.168341        -0.089876 
      -11.947707         5.130039        -0.089945 
      -11.979846         5.091737        -0.090014 
      -12.011986         5.053435        -0.090084 
      -12.044125         5.015132        -0.090153 
      -12.076264         4.976830        -0.090222 
      -12.108404         4.938528        -0.090292 
      -12.140543         4.900226        -0.090361 
      -12.172683         4.861924        -0.090430 
      -12.204822         4.823621        -0.090500 
      -12.236961         4.785319        -0.090569 
      -12.269101         4.747017        -0.090638 
      -12.301240         4.708715        -0.090708 
      -12.333379         4.670412        -0.090777 
      -12.365519         4.632110        -0.090847 
      -12.397658         4.593808        -0.090916 
      -12.429798         4.555506        -0.090985 
      -12.461937         4.517204        -0.091055 
      -12.494076         4.478901        -0.091124 
      -12.526216         4.440599        -0.091193 
      -12.558355         4.402297        -0.091263 
      -12.590494         4.363995        -0.091332 
      -12.622634         4.325692        -0.091401 
      -12.654773         4.287390        -0.091471 
      -12.686913         4.249088        -0.091540 
      -12.719052         4.210786        -0.091609 
      -12.751191         4.172484        -0.091679 
      -12.783331         4.134181        -0.091748 
      -12.815470         4.095879        -0.091817 
      -12.847610         4.057577        -0.091887 
      -12.879749         4.019275        -0.091956 
      -12.911888         3.980972        -0.092025 
      -12.944028         3.942670        -0.092095 
      -12.976167         3.904368        -0.092164 
      -13.008306         3.866066        -0.092233 
      -13.040446         3.827764        -0.092303 
      -13.072585         3.789461        -0.092372 
      -13.104725         3.751159        -0.092441 
      -13.136864         3.712857        -0.092511 
      -13.169003         3.674555        -0.092580 
      -13.201143         3.636252        -0.092649 
      -13.233282         3.597950        -0.092719 
      -13.265421         3.559648        -0.092788 
      -13.297561         3.521346        -0.092858 
      -13.329700         3.483044        -0.092927 
      -13.361840         3.444741        -0.092996 
      -13.393979         3.406439        -0.093066 
      -13.426118         3.368137        -0.093135 
      -13.458258         3.329835        -0.093204 
      -13.490397         3.291532        -0.093274 
      -13.522536         3.253230        -0.093343 
      -13.554676         3.214928        -0.093412 
      -13.586815         3.176626        -0.093482 
      -13.618955         3.138324        -0.093551 
      -13.651094         3.100021        -0.093620 
      -13.683233         3.061719        -0.093690 
      -13.715373         3.023417        -0.093759 
      -13.747512         2.985115        -0.093828 
      -13.779652         2.946812        -0.093898 
      -13.811791         2.908510        -0.093967 
      -13.843930         2.870208        -0.094036 
      -13.876070         2.831906        -0.094106 
      -13.908209         2.793604        -0.094175 
      -13.940348         2.755301        -0.094244 
      -13.972488         2.716999        -0.094314 
      -14.004627         2.678697        -0.094383 
      -14.036767         2.640395        -0.094452 
      -14.068906         2.602092        -0.094522 
      -14.101045         2.563790        -0.094591 
      -14.133185         2.525488        -0.094660 
      -14.165324         2.487186        -0.094730 
      -14.197463         2.448884        -0.094799 
      -14.229603         2.410581        -0.094868 
      -14.261742         2.372279        -0.094938 
      -14.293882         2.333977        -0.095007 
      -14.326021         2.295675        -0.095077 
      -14.358160         2.257372        -0.095146 
      -14.390300         2.219070        -0.095215 
      -14.422439         2.180768        -0.095285 
      -14.454579         2.142466        -0.095354 
      -14.486718         2.104164        -0.095423 
      -14.518857         2.065861        -0.095493 
      -14.550997         2.027559        -0.095562 
      -14.583136         1.989257        -0.095631 
      -14.615275         1.950955        -0.095701 
      -14.647415         1.912652        -0.095770 
      -14.679554         1.874350        -0.095839 
      -14.711694         1.836048        -0.095909 
      -14.743833         1.797746        -0.095978 
      -14.775972         1.759444        -0.096047 
      -14.808112         1.721141        -0.096117 
      -14.840251         1.682839        -0.096186 
      -14.872390         1.644537        -0.096255 
      -14.904530         1.606235        -0.096325 
      -14.936669         1.567932        -0.096394 
      -14.968809         1.529630        -0.096463 
      -15.000948         1.491328        -0.096533 
      -15.033087         1.453026        -0.096602 
      -15.065227         1.414724        -0.096671 
      -15.097366         1.376421        -0.096741 
      -15.129506         1.338119        -0.096810 
      -15.161645         1.299817        -0.096879 
      -15.193784         1.261515        -0.096949 
      -15.225924         1.223212        -0.097018 
      -15.258063         1.184910        -0.097088 
      -15.290202         1.146608        -0.097157 
      -15.322342         1.108306        -0.097226 
      -15.354481         1.070004        -0.097296 
      -15.386621         1.031701        -0.097365 
      -15.418760         0.993399        -0.097434 
      -15.450899         0.955097        -0.097504 
      -15.483039         0.916795        -0.097573 
      -15.515178         0.878492        -0.097642 
      -15.547317         0.840190        -0.097712 
      -15.579457         0.801888        -0.097781 
      -15.611596         0.763586        -0.097850 
      -15.643736         0.725284        -0.097920 
      -15.675875         0.686981        -0.097989 
      -15.708014         0.648679        -0.098058 
      -15.740154         0.610377        -0.098128 
      -15.772293         0.572075        -0.098197 
      -15.804433         0.533772        -0.098266 
      -15.836572         0.495470        -0.098336 
      -15.868711         0.457168        -0.098405 
      -15.900851         0.418866        -0.098474 
      -15.932990         0.380564        -0.098544 
      -15.965129         0.342261        -0.098613 
      -15.997269         0.303959        -0.098682 
      -16.029408         0.265657        -0.098752 
      -16.061548         0.227355        -0.098821 
      -16.093687         0.189052        -0.098890 
      -16.125826         0.150750        -0.098960 
      -16.157966         0.112448        -0.099029 
      -16.190105         0.074146        -0.099099 
      -16.222244         0.035844        -0.099168 
      -16.254384        -0.002459        -0.099237 
      -16.286523        -0.040761        -0.099307 
      -16.318663        -0.079063        -0.099376 
      -16.350802        -0.117365        -0.099445 
      -16.382941        -0.155668        -0.099515 
      -16.415081        -0.193970        -0.099584 
      -16.447220        -0.232272        -0.099653 
      -16.479360        -0.270574        -0.099723 
      -16.511499        -0.308876        -0.099792 
      -16.543638        -0.347179        -0.099861 
      -16.575778        -0.385481        -0.099931 
      -16.607917        -0.423783        -0.100000 
       12.300000        -7.000000        -0.034400 
       12.300000        -6.950000        -0.034469 
       12.300000        -6.900000        -0.034539 
       12.300000        -6.850000        -0.034608 
       12.300000        -6.800000        -0.034677 
       12.300000        -6.750000        -0.034747 
       12.300000        -6.700000        -0.034816 
       12.300000        -6.650000        -0.034885 
       12.300000        -6.600000        -0.034955 
       12.300000        -6.550000        -0.035024 
       12.300000        -6.500000        -0.035093 
       12.300000        -6.450000        -0.035163 
       12.300000        -6.400000        -0.035232 
       12.300000        -6.350000        -0.035301 
       12.300000        -6.300000        -0.035371 
       12.300000        -6.250000        -0.035440 
       12.300000        -6.200000        -0.035510 
       12.300000        -6.150000        -0.035579 
       12.300000        -6.100000        -0.035648 
       12.300000        -6.050000        -0.035718 
       12.300000        -6.000000        -0.035787 
       12.300000        -5.950000        -0.035856 
       12.300000        -5.900000        -0.035926 
       12.300000        -5.850000        -0.035995 
       12.300000        -5.800000        -0.036064 
       12.300000        -5.750000        -0.036134 
       12.300000        -5.700000        -0.036203 
       12.300000        -5.650000        -0.036272 
       12.300000        -5.600000        -0.036342 
       12.300000        -5.550000        -0.036411 
       12.300000        -5.500000        -0.036480 
       12.300000        -5.450000        -0.036550 
       12.300000        -5.400000        -0.036619 
       12.300000        -5.350000        -0.036688 
       12.300000        -5.300000        -0.036758 
       12.300000        -5.250000        -0.036827 
       12.300000        -5.200000        -0.036896 
       12.300000        -5.150000        -0.036966 
       12.300000        -5.100000        -0.037035 
       12.300000        -5.050000        -0.037104 
       12.300000        -5.000000        -0.037174 
       12.300000        -4.950000        -0.037243 
       12.300000        -4.900000        -0.037312 
       12.300000        -4.850000        -0.037382 
       12.300000        -4.800000        -0.037451 
       12.300000        -4.750000        -0.037521 
       12.300000        -4.700000        -0.037590 
       12.300000        -4.650000        -0.037659 
       12.300000        -4.600000        -0.037729 
       12.300000        -4.550000        -0.037798 
       12.300000        -4.500000        -0.037867 
       12.300000        -4.450000        -0.037937 
       12.300000        -4.400000        -0.038006 
       12.300000        -4.350000        -0.038075 
       12.300000        -4.300000        -0.038145 
       12.300000        -4.250000        -0.038214 
       12.300000        -4.200000        -0.038283 
       12.300000        -4.150000        -0.038353 
       12.300000        -4.100000        -0.038422 
       12.300000        -4.050000        -0.038491 
       12.300000        -4.000000        -0.038561 
       12.300000        -3.950000        -0.038630 
       12.300000        -3.900000        -0.038699 
       12.300000        -3.850000        -0.038769 
       12.300000        -3.800000        -0.038838 
       12.300000        -3.750000        -0.038907 
       12.300000        -3.700000        -0.038977 
       12.300000        -3.650000        -0.039046 
       12.300000        -3.600000        -0.039115 
       12.300000        -3.550000        -0.039185 
       12.300000        -3.500000        -0.039254 
       12.300000        -3.450000        -0.039323 
       12.300000        -3.400000        -0.039393 
       12.300000        -3.350000        -0.039462 
       12.300000        -3.300000        -0.039532 
       12.300000        -3.250000        -0.039601 
       12.300000        -3.200000        -0.039670 
       12.300000        -3.150000        -0.039740 
       12.300000        -3.100000        -0.039809 
       12.300000        -3.050000        -0.039878 
       12.300000        -3.000000        -0.039948 
       12.300000        -2.950000        -0.040017 
       12.300000        -2.900000        -0.040086 
       12.300000        -2.850000        -0.040156 
       12.300000        -2.800000        -0.040225 
       12.300000        -2.750000        -0.040294 
       12.300000        -2.700000        -0.040364 
       12.300000        -2.650000        -0.040433 
       12.300000        -2.600000        -0.040502 
       12.300000        -2.550000        -0.040572 
       12.300000        -2.500000        -0.040641 
       12.300000        -2.450000        -0.040710 
       12.300000        -2.400000        -0.040780 
       12.300000        -2.350000        -0.040849 
       12.300000        -2.300000        -0.040918 
       12.300000        -2.250000        -0.040988 
       12.300000        -2.200000        -0.041057 
       12.300000        -2.150000        -0.041126 
       12.300000        -2.100000        -0.041196 
       12.300000        -2.050000        -0.041265 
       12.300000        -2.000000        -0.041334 
       12.300000        -1.950000        -0.041404 
